1.200000 0.000000 0.000000
1.250000 0.000000 0.000000
1.300000 0.000000 0.000000
0.699967 0.035028 -0.022479
0.749765 0.037520 -0.018732
0.799562 0.040011 -0.014986
0.849359 0.042503 -0.011239
0.899156 0.044995 -0.007493
0.948953 0.047487 -0.003746
0.998750 0.049979 0.000000
1.048547 0.052471 0.003746
1.098345 0.054963 0.007493
1.148142 0.057455 0.011239
1.197939 0.059947 0.014986
1.247736 0.062439 0.018732
1.297533 0.064931 0.022479
0.699855 0.070220 -0.044831
0.749046 0.075155 -0.037360
0.798238 0.080091 -0.029888
0.847429 0.085027 -0.022416
0.896621 0.089962 -0.014944
0.945813 0.094898 -0.007472
0.995004 0.099833 0.000000
1.044196 0.104769 0.007472
1.093387 0.109705 0.014944
1.142579 0.114640 0.022416
1.191770 0.119576 0.029888
1.240962 0.124512 0.037360
1.290154 0.129447 0.044831
0.699617 0.105737 -0.066932
0.747809 0.113020 -0.055777
0.796001 0.120304 -0.044621
0.844194 0.127587 -0.033466
0.892386 0.134871 -0.022311
0.940579 0.142155 -0.011155
0.988771 0.149438 0.000000
1.036963 0.156722 0.011155
1.085156 0.164005 0.022311
1.133348 0.171289 0.033466
1.181541 0.178572 0.044621
1.229733 0.185856 0.055777
1.277926 0.193140 0.066932
0.699179 0.141731 -0.088656
0.745993 0.151220 -0.073880
0.792808 0.160710 -0.059104
0.839623 0.170200 -0.044328
0.886437 0.179690 -0.029552
0.933252 0.189180 -0.014776
0.980067 0.198669 0.000000
1.026881 0.208159 0.014776
1.073696 0.217649 0.029552
1.120511 0.227139 0.044328
1.167325 0.236629 0.059104
1.214140 0.246118 0.073880
1.260955 0.255608 0.088656
0.698438 0.178341 -0.109882
0.743517 0.189851 -0.091568
0.788596 0.201362 -0.073255
0.833675 0.212872 -0.054941
0.878754 0.224383 -0.036627
0.923833 0.235893 -0.018314
0.968912 0.247404 0.000000
1.013991 0.258915 0.018314
1.059070 0.270425 0.036627
1.104149 0.281936 0.054941
1.149229 0.293446 0.073255
1.194308 0.304957 0.091568
1.239387 0.316467 0.109882
0.697267 0.215690 -0.130490
0.740279 0.228995 -0.108741
0.783290 0.242300 -0.086993
0.826302 0.255605 -0.065245
0.869313 0.268910 -0.043497
0.912325 0.282215 -0.021748
0.955336 0.295520 0.000000
0.998348 0.308825 0.021748
1.041359 0.322130 0.043497
1.084371 0.335435 0.065245
1.127382 0.348740 0.086993
1.170394 0.362045 0.108741
1.213405 0.375350 0.130490
0.695514 0.253883 -0.150364
0.736157 0.268718 -0.125303
0.776800 0.283554 -0.100243
0.817443 0.298390 -0.075182
0.858087 0.313226 -0.050121
0.898730 0.328062 -0.025061
0.939373 0.342898 0.000000
0.980016 0.357734 0.025061
1.020659 0.372570 0.050121
1.061302 0.387405 0.075182
1.101945 0.402241 0.100243
1.142588 0.417077 0.125303
1.183231 0.431913 0.150364
0.693006 0.292998 -0.169393
0.731015 0.309068 -0.141161
0.769024 0.325138 -0.112928
0.807033 0.341208 -0.084696
0.845043 0.357278 -0.056464
0.883052 0.373348 -0.028232
0.921061 0.389418 0.000000
0.959070 0.405488 0.028232
0.997079 0.421558 0.056464
1.035089 0.437628 0.084696
1.073098 0.453699 0.112928
1.111107 0.469769 0.141161
1.149116 0.485839 0.169393
0.689552 0.333091 -0.187469
0.724701 0.350070 -0.156224
0.759850 0.367049 -0.124979
0.794999 0.384028 -0.093735
0.830149 0.401007 -0.062490
0.865298 0.417987 -0.031245
0.900447 0.434966 0.000000
0.935596 0.451945 0.031245
0.970746 0.468924 0.062490
1.005895 0.485903 0.093735
1.041044 0.502882 0.124979
1.076193 0.519861 0.156224
1.111343 0.536840 0.187469
0.684947 0.374188 -0.204492
0.717053 0.391728 -0.170410
0.749159 0.409267 -0.136328
0.781265 0.426807 -0.102246
0.813371 0.444347 -0.068164
0.845477 0.461886 -0.034082
0.877583 0.479426 0.000000
0.909688 0.496965 0.034082
0.941794 0.514505 0.068164
0.973900 0.532044 0.102246
1.006006 0.549584 0.136328
1.038112 0.567123 0.170410
1.070218 0.584663 0.204492
0.678979 0.416285 -0.220364
0.707903 0.434019 -0.183637
0.736827 0.451753 -0.146910
0.765752 0.469486 -0.110182
0.794676 0.487220 -0.073455
0.823600 0.504954 -0.036727
0.852525 0.522687 0.000000
0.881449 0.540421 0.036727
0.910373 0.558155 0.073455
0.939297 0.575888 0.110182
0.968222 0.593622 0.146910
0.997146 0.611355 0.183637
1.026070 0.629089 0.220364
0.671425 0.459346 -0.234998
0.697076 0.476896 -0.195832
0.722728 0.494445 -0.156665
0.748380 0.511994 -0.117499
0.774032 0.529544 -0.078333
0.799684 0.547093 -0.039166
0.825336 0.564642 0.000000
0.850987 0.582192 0.039166
0.876639 0.599741 0.078333
0.902291 0.617291 0.117499
0.927943 0.634840 0.156665
0.953595 0.652389 0.195832
0.979247 0.669939 0.234998
0.662063 0.503303 -0.248311
0.684400 0.520284 -0.206925
0.706736 0.537264 -0.165540
0.729073 0.554245 -0.124155
0.751410 0.571225 -0.082770
0.773747 0.588206 -0.041385
0.796084 0.605186 0.000000
0.818421 0.622167 0.041385
0.840757 0.639148 0.082770
0.863094 0.656128 0.124155
0.885431 0.673109 0.165540
0.907768 0.690089 0.206925
0.930105 0.707070 0.248311
0.650673 0.548054 -0.260227
0.669701 0.564082 -0.216856
0.688730 0.580109 -0.173485
0.707758 0.596136 -0.130113
0.726786 0.612163 -0.086742
0.745814 0.628190 -0.043371
0.764842 0.644218 0.000000
0.783870 0.660245 0.043371
0.802899 0.676272 0.086742
0.821927 0.692299 0.130113
0.840955 0.708327 0.173485
0.859983 0.724354 0.216856
0.879011 0.740381 0.260227
0.637043 0.593467 -0.270680
0.652817 0.608162 -0.225567
0.668591 0.622857 -0.180454
0.684366 0.637553 -0.135340
0.700140 0.652248 -0.090227
0.715915 0.666943 -0.045113
0.731689 0.681639 0.000000
0.747463 0.696334 0.045113
0.763238 0.711029 0.090227
0.779012 0.725725 0.135340
0.794786 0.740420 0.180454
0.810561 0.755115 0.225567
0.826335 0.769811 0.270680
0.620970 0.639374 -0.279612
0.633592 0.652371 -0.233010
0.646215 0.665368 -0.186408
0.658838 0.678365 -0.139806
0.671461 0.691362 -0.093204
0.684084 0.704359 -0.046602
0.696707 0.717356 0.000000
0.709330 0.730353 0.046602
0.721952 0.743350 0.093204
0.734575 0.756347 0.139806
0.747198 0.769344 0.186408
0.759821 0.782341 0.233010
0.772444 0.795338 0.279612
0.602267 0.685581 -0.286971
0.611887 0.696531 -0.239143
0.621506 0.707481 -0.191314
0.631125 0.718430 -0.143486
0.640745 0.729380 -0.095657
0.650364 0.740330 -0.047829
0.659983 0.751280 0.000000
0.669602 0.762230 0.047829
0.679222 0.773180 0.095657
0.688841 0.784130 0.143486
0.698460 0.795080 0.191314
0.708080 0.806030 0.239143
0.717699 0.816980 0.286971
0.580769 0.731861 -0.292717
0.587576 0.740438 -0.243931
0.594383 0.749016 -0.195145
0.601189 0.757594 -0.146359
0.607996 0.766172 -0.097572
0.614803 0.774749 -0.048786
0.621610 0.783327 0.000000
0.628417 0.791905 0.048786
0.635224 0.800482 0.097572
0.642030 0.809060 0.146359
0.648837 0.817638 0.195145
0.655644 0.826215 0.243931
0.662451 0.834793 0.292717
0.556331 0.777964 -0.296817
0.560556 0.783872 -0.247348
0.564782 0.789781 -0.197878
0.569007 0.795690 -0.148409
0.573232 0.801598 -0.098939
0.577458 0.807507 -0.049470
0.581683 0.813416 0.000000
0.585908 0.819324 0.049470
0.590134 0.825233 0.098939
0.594359 0.831141 0.148409
0.598585 0.837050 0.197878
0.602810 0.842959 0.247348
0.607035 0.848867 0.296817
0.528836 0.823614 -0.299248
0.530747 0.826590 -0.249374
0.532658 0.829566 -0.199499
0.534569 0.832542 -0.149624
0.536480 0.835519 -0.099749
0.538391 0.838495 -0.049875
0.540302 0.841471 0.000000
0.542213 0.844447 0.049875
0.544124 0.847423 0.099749
0.546035 0.850399 0.149624
0.547946 0.853376 0.199499
0.549857 0.856352 0.249374
0.551768 0.859328 0.299248
0.498199 0.868517 -0.299997
0.498094 0.868335 -0.249998
0.497989 0.868152 -0.199998
0.497885 0.867970 -0.149999
0.497780 0.867788 -0.099999
0.497676 0.867606 -0.050000
0.497571 0.867423 0.000000
0.497466 0.867241 0.050000
0.497362 0.867059 0.099999
0.497257 0.866876 0.149999
0.497153 0.866694 0.199998
0.497048 0.866512 0.249998
0.496944 0.866329 0.299997
0.464363 0.912361 -0.299060
0.462568 0.908836 -0.249216
0.460774 0.905310 -0.199373
0.458979 0.901784 -0.149530
0.457185 0.898259 -0.099687
0.455391 0.894733 -0.049843
0.453596 0.891207 0.000000
0.451802 0.887682 0.049843
0.450007 0.884156 0.099687
0.448213 0.880630 0.149530
0.446418 0.877105 0.199373
0.444624 0.873579 0.249216
0.442829 0.870053 0.299060
0.427310 0.954822 -0.296440
0.424173 0.947813 -0.247034
0.421036 0.940803 -0.197627
0.417899 0.933793 -0.148220
0.414762 0.926783 -0.098813
0.411624 0.919774 -0.049407
0.408487 0.912764 0.000000
0.405350 0.905754 0.049407
0.402213 0.898745 0.098813
0.399076 0.891735 0.148220
0.395939 0.884725 0.197627
0.392802 0.877715 0.247034
0.389665 0.870706 0.296440
0.387056 0.995567 -0.292154
0.382940 0.984979 -0.243462
0.378823 0.974391 -0.194770
0.374707 0.963803 -0.146077
0.370591 0.953215 -0.097385
0.366474 0.942627 -0.048692
0.362358 0.932039 0.000000
0.358241 0.921451 0.048692
0.354125 0.910863 0.097385
0.350008 0.900275 0.146077
0.345892 0.889687 0.194770
0.341776 0.879099 0.243462
0.337659 0.868511 0.292154
0.343657 1.034260 -0.286226
0.338935 1.020048 -0.238521
0.334212 1.005835 -0.190817
0.329490 0.991623 -0.143113
0.324767 0.977410 -0.095409
0.320045 0.963197 -0.047704
0.315322 0.948985 0.000000
0.310600 0.934772 0.047704
0.305877 0.920559 0.095409
0.301155 0.906347 0.143113
0.296432 0.892134 0.190817
0.291710 0.877921 0.238521
0.286987 0.863709 0.286226
0.297206 1.070565 -0.278688
0.292255 1.052731 -0.232240
0.287303 1.034896 -0.185792
0.282352 1.017062 -0.139344
0.277401 0.999227 -0.092896
0.272450 0.981393 -0.046448
0.267499 0.963558 0.000000
0.262548 0.945724 0.046448
0.257597 0.927889 0.092896
0.252645 0.910055 0.139344
0.247694 0.892220 0.185792
0.242743 0.874385 0.232240
0.237792 0.856551 0.278688
0.247833 1.104152 -0.269583
0.243029 1.082747 -0.224653
0.238224 1.061342 -0.179722
0.233420 1.039938 -0.134792
0.228616 1.018533 -0.089861
0.223811 0.997128 -0.044931
0.219007 0.975723 0.000000
0.214202 0.954319 0.044931
0.209398 0.932914 0.089861
0.204593 0.911509 0.134792
0.199789 0.890104 0.179722
0.194985 0.868699 0.224653
0.190180 0.847295 0.269583
0.195709 1.134700 -0.258963
0.191419 1.109825 -0.215802
0.187129 1.084950 -0.172642
0.182838 1.060075 -0.129481
0.178548 1.035200 -0.086321
0.174258 1.010325 -0.043160
0.169967 0.985450 0.000000
0.165677 0.960575 0.043160
0.161386 0.935700 0.086321
0.157096 0.910825 0.129481
0.152806 0.885950 0.172642
0.148515 0.861075 0.215802
0.144225 0.836200 0.258963
0.141040 1.161903 -0.246886
0.137617 1.133705 -0.205739
0.134194 1.105506 -0.164591
0.130772 1.077308 -0.123443
0.127349 1.049110 -0.082295
0.123926 1.020911 -0.041148
0.120503 0.992713 0.000000
0.117080 0.964515 0.041148
0.113657 0.936316 0.082295
0.110234 0.908118 0.123443
0.106811 0.879920 0.164591
0.103388 0.851721 0.205739
0.099965 0.823523 0.246886
0.084068 1.185475 -0.233422
0.081846 1.154145 -0.194518
0.079624 1.122815 -0.155615
0.077402 1.091485 -0.116711
0.075181 1.060155 -0.077807
0.072959 1.028825 -0.038904
0.070737 0.997495 0.000000
0.068515 0.966165 0.038904
0.066294 0.934835 0.077807
0.064072 0.903505 0.116711
0.061850 0.872175 0.155615
0.059628 0.840845 0.194518
0.057407 0.809515 0.233422
0.025066 1.205152 -0.218645
0.024354 1.170924 -0.182204
0.023643 1.136696 -0.145763
0.022931 1.102468 -0.109323
0.022219 1.068240 -0.072882
0.021507 1.034012 -0.036441
0.020795 0.999784 0.000000
0.020083 0.965556 0.036441
0.019371 0.931328 0.072882
0.018659 0.897100 0.109323
0.017947 0.862872 0.145763
0.017235 0.828644 0.182204
0.016523 0.794416 0.218645
-0.035659 1.220697 -0.202639
-0.034582 1.183843 -0.168866
-0.033506 1.146989 -0.135093
-0.032429 1.110135 -0.101319
-0.031353 1.073282 -0.067546
-0.030276 1.036428 -0.033773
-0.029200 0.999574 0.000000
-0.028123 0.962720 0.033773
-0.027046 0.925866 0.067546
-0.025970 0.889012 0.101319
-0.024893 0.852158 0.135093
-0.023817 0.815304 0.168866
-0.022740 0.778450 0.202639
-0.097776 1.231906 -0.185493
-0.094667 1.192732 -0.154578
-0.091558 1.153559 -0.123662
-0.088448 1.114385 -0.092747
-0.085339 1.075212 -0.061831
-0.082230 1.036038 -0.030916
-0.079121 0.996865 0.000000
-0.076012 0.957692 0.030916
-0.072903 0.918518 0.061831
-0.069793 0.879345 0.092747
-0.066684 0.840171 0.123662
-0.063575 0.800998 0.154578
-0.060466 0.761824 0.185493
-0.160929 1.238605 -0.167305
-0.155581 1.197449 -0.139421
-0.150234 1.156292 -0.111537
-0.144887 1.115135 -0.083653
-0.139539 1.073978 -0.055768
-0.134192 1.032822 -0.027884
-0.128844 0.991665 0.000000
-0.123497 0.950508 0.027884
-0.118150 0.909351 0.055768
-0.112802 0.868195 0.083653
-0.107455 0.827038 0.111537
-0.102108 0.785881 0.139421
-0.096760 0.744724 0.167305
-0.224742 1.240661 -0.148176
-0.216993 1.197882 -0.123480
-0.209243 1.155103 -0.098784
-0.201494 1.112323 -0.074088
-0.193745 1.069544 -0.049392
-0.185995 1.026765 -0.024696
-0.178246 0.983986 0.000000
-0.170497 0.941207 0.024696
-0.162747 0.898428 0.049392
-0.154998 0.855649 0.074088
-0.147249 0.812869 0.098784
-0.139499 0.770090 0.123480
-0.131750 0.727311 0.148176
-0.288824 1.237976 -0.128214
-0.278554 1.193955 -0.106845
-0.268284 1.149933 -0.085476
-0.258013 1.105912 -0.064107
-0.247743 1.061890 -0.042738
-0.237472 1.017869 -0.021369
-0.227202 0.973848 0.000000
-0.216932 0.929826 0.021369
-0.206661 0.885805 0.042738
-0.196391 0.841783 0.064107
-0.186121 0.797762 0.085476
-0.175850 0.753741 0.106845
-0.165580 0.709719 0.128214
-0.352774 1.230496 -0.107531
-0.339910 1.185626 -0.089609
-0.327046 1.140756 -0.071687
-0.314182 1.095886 -0.053765
-0.301318 1.051015 -0.035844
-0.288454 1.006145 -0.017922
-0.275590 0.961275 0.000000
-0.262726 0.916405 0.017922
-0.249862 0.871535 0.035844
-0.236998 0.826665 0.053765
-0.224135 0.781795 0.071687
-0.211271 0.736925 0.089609
-0.198407 0.692054 0.107531
-0.416182 1.218206 -0.086243
-0.400700 1.172889 -0.071870
-0.385218 1.127571 -0.057496
-0.369736 1.082253 -0.043122
-0.354254 1.036936 -0.028748
-0.338772 0.991618 -0.014374
-0.323290 0.946300 0.000000
-0.307807 0.900982 0.014374
-0.292325 0.855665 0.028748
-0.276843 0.810347 0.043122
-0.261361 0.765029 0.057496
-0.245879 0.719712 0.071870
-0.230397 0.674394 0.086243
-0.478640 1.201136 -0.064471
-0.460564 1.155773 -0.053726
-0.442487 1.110411 -0.042981
-0.424411 1.065048 -0.032235
-0.406334 1.019685 -0.021490
-0.388257 0.974322 -0.010745
-0.370181 0.928960 0.000000
-0.352104 0.883597 0.010745
-0.334028 0.838234 0.021490
-0.315951 0.792871 0.032235
-0.297874 0.747509 0.042981
-0.279798 0.702146 0.053726
-0.261721 0.656783 0.064471
-0.539742 1.179357 -0.042336
-0.519142 1.134347 -0.035280
-0.498543 1.089337 -0.028224
-0.477944 1.044327 -0.021168
-0.457345 0.999317 -0.014112
-0.436746 0.954307 -0.007056
-0.416147 0.909297 0.000000
-0.395548 0.864288 0.007056
-0.374949 0.819278 0.014112
-0.354349 0.774268 0.021168
-0.333750 0.729258 0.028224
-0.313151 0.684248 0.035280
-0.292552 0.639238 0.042336
-0.599088 1.152981 -0.019963
-0.576085 1.108711 -0.016636
-0.553083 1.064441 -0.013309
-0.530080 1.020172 -0.009982
-0.507078 0.975902 -0.006654
-0.484075 0.931632 -0.003327
-0.461073 0.887362 0.000000
-0.438070 0.843093 0.003327
-0.415068 0.798823 0.006654
-0.392065 0.754553 0.009982
-0.369063 0.710283 0.013309
-0.346060 0.666013 0.016636
-0.323057 0.621744 0.019963
-0.656295 1.122163 0.002522
-0.631053 1.079004 0.002102
-0.605812 1.035845 0.001681
-0.580570 0.992686 0.001261
-0.555329 0.949527 0.000841
-0.530088 0.906368 0.000420
-0.504846 0.863209 -0.000000
-0.479605 0.820050 -0.000420
-0.454363 0.776891 -0.000841
-0.429122 0.733733 -0.001261
-0.403880 0.690574 -0.001681
-0.378639 0.647415 -0.002102
-0.353398 0.604256 -0.002522
-0.710994 1.087096 0.024993
-0.683721 1.045396 0.020828
-0.656449 1.003697 0.016662
-0.629176 0.961997 0.012497
-0.601903 0.920298 0.008331
-0.574630 0.878598 0.004166
-0.547358 0.836899 -0.000000
-0.520085 0.795199 -0.004166
-0.492812 0.753500 -0.008331
-0.465539 0.711800 -0.012497
-0.438267 0.670101 -0.016662
-0.410994 0.628401 -0.020828
-0.383721 0.586702 -0.024993
-0.762841 1.048009 0.047324
-0.733784 1.008090 0.039436
-0.704728 0.968171 0.031549
-0.675671 0.928252 0.023662
-0.646614 0.888334 0.015775
-0.617558 0.848415 0.007887
-0.588501 0.808496 -0.000000
-0.559444 0.768578 -0.007887
-0.530388 0.728659 -0.015775
-0.501331 0.688740 -0.023662
-0.472275 0.648822 -0.031549
-0.443218 0.608903 -0.039436
-0.414161 0.568984 -0.047324
-0.811516 1.005166 0.069388
-0.780959 0.967317 0.057823
-0.750402 0.929468 0.046259
-0.719845 0.891619 0.034694
-0.689288 0.853771 0.023129
-0.658731 0.815922 0.011565
-0.628174 0.778073 -0.000000
-0.597617 0.740224 -0.011565
-0.567060 0.702376 -0.023129
-0.536503 0.664527 -0.034694
-0.505946 0.626678 -0.046259
-0.475389 0.588829 -0.057823
-0.444832 0.550981 -0.069388
-0.856728 0.958862 0.091062
-0.824986 0.923336 0.075885
-0.793244 0.887810 0.060708
-0.761502 0.852283 0.045531
-0.729760 0.816757 0.030354
-0.698018 0.781231 0.015177
-0.666276 0.745705 -0.000000
-0.634534 0.710179 -0.015177
-0.602792 0.674653 -0.030354
-0.571050 0.639127 -0.045531
-0.539308 0.603601 -0.060708
-0.507566 0.568075 -0.075885
-0.475824 0.532549 -0.091062
-0.898221 0.909418 0.112225
-0.865636 0.876428 0.093521
-0.833052 0.843437 0.074817
-0.800467 0.810446 0.056112
-0.767882 0.777455 0.037408
-0.735298 0.744464 0.018704
-0.702713 0.711473 -0.000000
-0.670128 0.678482 -0.018704
-0.637544 0.645492 -0.037408
-0.604959 0.612501 -0.056112
-0.572375 0.579510 -0.074817
-0.539790 0.546519 -0.093521
-0.507205 0.513528 -0.112225
-0.935773 0.857181 0.132756
-0.902710 0.826895 0.110630
-0.869647 0.796609 0.088504
-0.836583 0.766322 0.066378
-0.803520 0.736036 0.044252
-0.770457 0.705750 0.022126
-0.737394 0.675463 -0.000000
-0.704331 0.645177 -0.022126
-0.671267 0.614890 -0.044252
-0.638204 0.584604 -0.066378
-0.605141 0.554318 -0.088504
-0.572078 0.524031 -0.110630
-0.539015 0.493745 -0.132756
-0.969200 0.802515 0.152541
-0.936039 0.775056 0.127118
-0.902877 0.747598 0.101694
-0.869716 0.720140 0.076271
-0.836554 0.692681 0.050847
-0.803393 0.665223 0.025424
-0.770231 0.637765 -0.000000
-0.737070 0.610306 -0.025424
-0.703908 0.582848 -0.050847
-0.670747 0.555390 -0.076271
-0.637585 0.527931 -0.101694
-0.604424 0.500473 -0.127118
-0.571262 0.473015 -0.152541
-0.998359 0.745797 0.171468
-0.965490 0.721243 0.142890
-0.932621 0.696689 0.114312
-0.899751 0.672134 0.085734
-0.866882 0.647580 0.057156
-0.834013 0.623026 0.028578
-0.801144 0.598472 -0.000000
-0.768274 0.573918 -0.028578
-0.735405 0.549364 -0.057156
-0.702536 0.524810 -0.085734
-0.669666 0.500256 -0.114312
-0.636797 0.475702 -0.142890
-0.603928 0.451148 -0.171468
-1.023147 0.687416 0.189432
-0.990965 0.665794 0.157860
-0.958783 0.644172 0.126288
-0.926600 0.622550 0.094716
-0.894418 0.600928 0.063144
-0.862236 0.579306 0.031572
-0.830054 0.557684 -0.000000
-0.797871 0.536062 -0.031572
-0.765689 0.514439 -0.063144
-0.733507 0.492817 -0.094716
-0.701325 0.471195 -0.126288
-0.669142 0.449573 -0.157860
-0.636960 0.427951 -0.189432
-1.043502 0.627767 0.206330
-1.012400 0.609056 0.171942
-0.981297 0.590345 0.137553
-0.950195 0.571634 0.103165
-0.919093 0.552923 0.068777
-0.887991 0.534212 0.034388
-0.856889 0.515501 -0.000000
-0.825787 0.496790 -0.034388
-0.794684 0.478079 -0.068777
-0.763582 0.459369 -0.103165
-0.732480 0.440658 -0.137553
-0.701378 0.421947 -0.171942
-0.670276 0.403236 -0.206330
-1.059404 0.567243 0.222068
-1.029767 0.551374 0.185057
-1.000130 0.535505 0.148045
-0.970493 0.519637 0.111034
-0.940856 0.503768 0.074023
-0.911219 0.487899 0.037011
-0.881582 0.472031 -0.000000
-0.851945 0.456162 -0.037011
-0.822308 0.440293 -0.074023
-0.792671 0.424425 -0.111034
-0.763035 0.408556 -0.148045
-0.733398 0.392687 -0.185057
-0.703761 0.376819 -0.222068
-1.070874 0.506232 0.236558
-1.043074 0.493090 0.197131
-1.015273 0.479948 0.157705
-0.987473 0.466806 0.118279
-0.959673 0.453664 0.078853
-0.931872 0.440522 0.039426
-0.904072 0.427380 -0.000000
-0.876272 0.414238 -0.039426
-0.848471 0.401096 -0.078853
-0.820671 0.387954 -0.118279
-0.792871 0.374812 -0.157705
-0.765071 0.361670 -0.197131
-0.737270 0.348528 -0.236558
-1.077974 0.445115 0.249717
-1.052362 0.434539 0.208098
-1.026750 0.423963 0.166478
-1.001138 0.413388 0.124859
-0.975526 0.402812 0.083239
-0.949914 0.392237 0.041620
-0.924302 0.381661 -0.000000
-0.898690 0.371085 -0.041620
-0.873079 0.360510 -0.083239
-0.847467 0.349934 -0.124859
-0.821855 0.339358 -0.166478
-0.796243 0.328783 -0.208098
-0.770631 0.318207 -0.249717
-1.080803 0.384258 0.261473
-1.057706 0.376046 0.217894
-1.034609 0.367834 0.174315
-1.011513 0.359623 0.130736
-0.988416 0.351411 0.087158
-0.965319 0.343200 0.043579
-0.942222 0.334988 -0.000000
-0.919126 0.326777 -0.043579
-0.896029 0.318565 -0.087158
-0.872932 0.310353 -0.130736
-0.849835 0.302142 -0.174315
-0.826739 0.293930 -0.217894
-0.803642 0.285719 -0.261473
-1.079496 0.324009 0.271758
-1.059211 0.317920 0.226465
-1.038926 0.311832 0.181172
-1.018642 0.305743 0.135879
-0.998357 0.299655 0.090586
-0.978072 0.293566 0.045293
-0.957787 0.287478 -0.000000
-0.937502 0.281390 -0.045293
-0.917218 0.275301 -0.090586
-0.896933 0.269213 -0.135879
-0.876648 0.263124 -0.181172
-0.856363 0.257036 -0.226465
-0.836079 0.250947 -0.271758
-1.074222 0.264694 0.280516
-1.057012 0.260453 0.233763
-1.039801 0.256213 0.187011
-1.022590 0.251972 0.140258
-1.005380 0.247731 0.093505
-0.988169 0.243490 0.046753
-0.970958 0.239249 -0.000000
-0.953747 0.235009 -0.046753
-0.936537 0.230768 -0.093505
-0.919326 0.226527 -0.140258
-0.902115 0.222286 -0.187011
-0.884905 0.218045 -0.233763
-0.867694 0.213805 -0.280516
-1.065181 0.206615 0.287696
-1.051268 0.203916 0.239747
-1.037355 0.201218 0.191797
-1.023442 0.198519 0.143848
-1.009528 0.195820 0.095899
-0.995615 0.193121 0.047949
-0.981702 0.190423 -0.000000
-0.967789 0.187724 -0.047949
-0.953876 0.185025 -0.095899
-0.939963 0.182326 -0.143848
-0.926050 0.179628 -0.191797
-0.912137 0.176929 -0.239747
-0.898223 0.174230 -0.287696
-1.052598 0.150044 0.293259
-1.042164 0.148557 0.244383
-1.031730 0.147070 0.195506
-1.021295 0.145582 0.146630
-1.010861 0.144095 0.097753
-1.000427 0.142607 0.048877
-0.989992 0.141120 -0.000000
-0.979558 0.139633 -0.048877
-0.969124 0.138145 -0.097753
-0.958690 0.136658 -0.146630
-0.948255 0.135171 -0.195506
-0.937821 0.133683 -0.244383
-0.927387 0.132196 -0.293259
-1.036723 0.095223 0.297173
-1.029904 0.094596 0.247644
-1.023085 0.093970 0.198115
-1.016266 0.093344 0.148587
-1.009447 0.092717 0.099058
-1.002627 0.092091 0.049529
-0.995808 0.091465 -0.000000
-0.988989 0.090838 -0.049529
-0.982170 0.090212 -0.099058
-0.975351 0.089586 -0.148587
-0.968532 0.088959 -0.198115
-0.961713 0.088333 -0.247644
-0.954893 0.087707 -0.297173
-1.017824 0.042358 0.299416
-1.014709 0.042229 0.249514
-1.011594 0.042099 0.199611
-1.008479 0.041970 0.149708
-1.005365 0.041840 0.099805
-1.002250 0.041710 0.049903
-0.999135 0.041581 -0.000000
-0.996020 0.041451 -0.049903
-0.992906 0.041321 -0.099805
-0.989791 0.041192 -0.149708
-0.986676 0.041062 -0.199611
-0.983562 0.040933 -0.249514
-0.980447 0.040803 -0.299416
-0.996182 -0.008375 0.299976
-0.996812 -0.008381 0.249980
-0.997443 -0.008386 0.199984
-0.998073 -0.008391 0.149988
-0.998704 -0.008397 0.099992
-0.999334 -0.008402 0.049996
-0.999965 -0.008407 -0.000000
-1.000595 -0.008413 -0.049996
-1.001226 -0.008418 -0.099992
-1.001856 -0.008423 -0.149988
-1.002487 -0.008428 -0.199984
-1.003117 -0.008434 -0.249980
-1.003748 -0.008439 -0.299976
-0.972090 -0.056842 0.298849
-0.976457 -0.057097 0.249041
-0.980825 -0.057353 0.199233
-0.985192 -0.057608 0.149425
-0.989560 -0.057863 0.099616
-0.993927 -0.058119 0.049808
-0.998295 -0.058374 -0.000000
-1.002662 -0.058630 -0.049808
-1.007030 -0.058885 -0.099616
-1.011397 -0.059140 -0.149425
-1.015765 -0.059396 -0.199233
-1.020132 -0.059651 -0.249041
-1.024500 -0.059906 -0.298849
-0.945846 -0.102940 0.296042
-0.953893 -0.103816 0.246702
-0.961941 -0.104692 0.197362
-0.969988 -0.105568 0.148021
-0.978035 -0.106444 0.098681
-0.986082 -0.107319 0.049340
-0.994130 -0.108195 -0.000000
-1.002177 -0.109071 -0.049340
-1.010224 -0.109947 -0.098681
-1.018271 -0.110823 -0.148021
-1.026319 -0.111698 -0.197362
-1.034366 -0.112574 -0.246702
-1.042413 -0.113450 -0.296042
-0.917749 -0.146607 0.291571
-0.929371 -0.148463 0.242976
-0.940993 -0.150320 0.194381
-0.952615 -0.152176 0.145785
-0.964236 -0.154033 0.097190
-0.975858 -0.155889 0.048595
-0.987480 -0.157746 -0.000000
-0.999101 -0.159602 -0.048595
-1.010723 -0.161459 -0.097190
-1.022345 -0.163315 -0.145785
-1.033967 -0.165172 -0.194381
-1.045588 -0.167028 -0.242976
-1.057210 -0.168885 -0.291571
-0.888095 -0.187813 0.285460
-0.903139 -0.190994 0.237883
-0.918184 -0.194176 0.190307
-0.933228 -0.197357 0.142730
-0.948273 -0.200539 0.095153
-0.963317 -0.203720 0.047577
-0.978362 -0.206902 -0.000000
-0.993406 -0.210084 -0.047577
-1.008451 -0.213265 -0.095153
-1.023495 -0.216447 -0.142730
-1.038540 -0.219628 -0.190307
-1.053584 -0.222810 -0.237883
-1.068629 -0.225991 -0.285460
-0.857170 -0.226564 0.277744
-0.875441 -0.231394 0.231454
-0.893713 -0.236223 0.185163
-0.911984 -0.241053 0.138872
-0.930255 -0.245882 0.092581
-0.948527 -0.250712 0.046291
-0.966798 -0.255541 -0.000000
-0.985070 -0.260371 -0.046291
-1.003341 -0.265200 -0.092581
-1.021612 -0.270029 -0.138872
-1.039884 -0.274859 -0.185163
-1.058155 -0.279688 -0.231454
-1.076427 -0.284518 -0.277744
-0.825249 -0.262902 0.268467
-0.846511 -0.269675 0.223723
-0.867772 -0.276448 0.178978
-0.889034 -0.283222 0.134234
-0.910295 -0.289995 0.089489
-0.931557 -0.296768 0.044745
-0.952818 -0.303542 -0.000000
-0.974080 -0.310315 -0.044745
-0.995341 -0.317088 -0.089489
-1.016603 -0.323861 -0.134234
-1.037864 -0.330635 -0.178978
-1.059126 -0.337408 -0.223723
-1.080387 -0.344181 -0.268467
-0.792593 -0.296894 0.257680
-0.816570 -0.305875 0.214734
-0.840548 -0.314857 0.171787
-0.864525 -0.323839 0.128840
-0.888502 -0.332820 0.085893
-0.912479 -0.341802 0.042947
-0.936457 -0.350783 -0.000000
-0.960434 -0.359765 -0.042947
-0.984411 -0.368746 -0.085893
-1.008389 -0.377728 -0.128840
-1.032366 -0.386709 -0.171787
-1.056343 -0.395691 -0.214734
-1.080320 -0.404673 -0.257680
-0.759440 -0.328639 0.245445
-0.785826 -0.340058 0.204537
-0.812212 -0.351476 0.163630
-0.838597 -0.362894 0.122722
-0.864983 -0.374312 0.081815
-0.891369 -0.385730 0.040907
-0.917755 -0.397148 -0.000000
-0.944140 -0.408566 -0.040907
-0.970526 -0.419984 -0.081815
-0.996912 -0.431403 -0.122722
-1.023297 -0.442821 -0.163630
-1.049683 -0.454239 -0.204537
-1.076069 -0.465657 -0.245445
-0.726009 -0.358261 0.231829
-0.754467 -0.372304 0.193191
-0.782925 -0.386348 0.154553
-0.811383 -0.400391 0.115915
-0.839842 -0.414434 0.077276
-0.868300 -0.428477 0.038638
-0.896758 -0.442520 -0.000000
-0.925217 -0.456564 -0.038638
-0.953675 -0.470607 -0.077276
-0.982133 -0.484650 -0.115915
-1.010592 -0.498693 -0.154553
-1.039050 -0.512737 -0.193191
-1.067508 -0.526780 -0.231829
-0.692489 -0.385903 0.216910
-0.722661 -0.402717 0.180759
-0.752833 -0.419531 0.144607
-0.783005 -0.436345 0.108455
-0.813177 -0.453159 0.072303
-0.843349 -0.469973 0.036152
-0.873521 -0.486787 -0.000000
-0.903693 -0.503601 -0.036152
-0.933865 -0.520414 -0.072303
-0.964037 -0.537228 -0.108455
-0.994209 -0.554042 -0.144607
-1.024381 -0.570856 -0.180759
-1.054552 -0.587670 -0.216910
-0.659047 -0.411728 0.200772
-0.690556 -0.431413 0.167310
-0.722064 -0.451098 0.133848
-0.753573 -0.470782 0.100386
-0.785082 -0.490467 0.066924
-0.816591 -0.510151 0.033462
-0.848100 -0.529836 -0.000000
-0.879609 -0.549521 -0.033462
-0.911118 -0.569205 -0.066924
-0.942627 -0.588890 -0.100386
-0.974136 -0.608575 -0.133848
-1.005644 -0.628259 -0.167310
-1.037153 -0.647944 -0.200772
-0.625815 -0.435912 0.183505
-0.658273 -0.458520 0.152921
-0.690730 -0.481128 0.122336
-0.723187 -0.503737 0.091752
-0.755645 -0.526345 0.061168
-0.788102 -0.548953 0.030584
-0.820559 -0.571561 -0.000000
-0.853017 -0.594170 -0.030584
-0.885474 -0.616778 -0.061168
-0.917931 -0.639386 -0.091752
-0.950389 -0.661994 -0.122336
-0.982846 -0.684602 -0.152921
-1.015304 -0.707211 -0.183505
-0.592898 -0.458640 0.165206
-0.625910 -0.484176 0.137671
-0.658922 -0.509713 0.110137
-0.691933 -0.535249 0.082603
-0.724945 -0.560785 0.055069
-0.757956 -0.586322 0.027534
-0.790968 -0.611858 -0.000000
-0.823979 -0.637394 -0.027534
-0.856991 -0.662930 -0.055069
-0.890002 -0.688467 -0.082603
-0.923014 -0.714003 -0.110137
-0.956025 -0.739539 -0.137671
-0.989037 -0.765076 -0.165206
-0.560369 -0.480104 0.145978
-0.593541 -0.508524 0.121648
-0.626712 -0.536944 0.097319
-0.659884 -0.565364 0.072989
-0.693056 -0.593785 0.048659
-0.726227 -0.622205 0.024330
-0.759399 -0.650625 -0.000000
-0.792571 -0.679045 -0.024330
-0.825742 -0.707466 -0.048659
-0.858914 -0.735886 -0.072989
-0.892086 -0.764306 -0.097319
-0.925257 -0.792726 -0.121648
-0.958429 -0.821147 -0.145978
-0.528268 -0.500494 0.125929
-0.561212 -0.531706 0.104941
-0.594156 -0.562918 0.083953
-0.627100 -0.594130 0.062965
-0.660044 -0.625342 0.041976
-0.692988 -0.656554 0.020988
-0.725932 -0.687766 -0.000000
-0.758876 -0.718978 -0.020988
-0.791820 -0.750190 -0.041976
-0.824764 -0.781402 -0.062965
-0.857708 -0.812614 -0.083953
-0.890652 -0.843826 -0.104941
-0.923596 -0.875038 -0.125929
-0.496606 -0.520001 0.105173
-0.528946 -0.553865 0.087644
-0.561287 -0.587730 0.070115
-0.593628 -0.621595 0.052586
-0.625969 -0.655459 0.035058
-0.658310 -0.689324 0.017529
-0.690651 -0.723188 -0.000000
-0.722992 -0.757053 -0.017529
-0.755333 -0.790917 -0.035058
-0.787674 -0.824782 -0.052586
-0.820015 -0.858646 -0.070115
-0.852356 -0.892511 -0.087644
-0.884697 -0.926375 -0.105173
-0.465361 -0.538805 0.083825
-0.496741 -0.575138 0.069854
-0.528122 -0.611471 0.055883
-0.559502 -0.647804 0.041912
-0.590883 -0.684137 0.027942
-0.622263 -0.720470 0.013971
-0.653644 -0.756802 -0.000000
-0.685024 -0.793135 -0.013971
-0.716405 -0.829468 -0.027942
-0.747785 -0.865801 -0.041912
-0.779165 -0.902134 -0.055883
-0.810546 -0.938467 -0.069854
-0.841926 -0.974800 -0.083825
-0.434485 -0.557076 0.062005
-0.464572 -0.595650 0.051671
-0.494658 -0.634225 0.041337
-0.524744 -0.672800 0.031003
-0.554830 -0.711375 0.020668
-0.584916 -0.749950 0.010334
-0.615002 -0.788525 -0.000000
-0.645089 -0.827100 -0.010334
-0.675175 -0.865675 -0.020668
-0.705261 -0.904250 -0.031003
-0.735347 -0.942825 -0.041337
-0.765433 -0.981400 -0.051671
-0.795519 -1.019975 -0.062005
-0.403904 -0.574968 0.039838
-0.432391 -0.615520 0.033198
-0.460877 -0.656071 0.026558
-0.489364 -0.696623 0.019919
-0.517851 -0.737174 0.013279
-0.546337 -0.777726 0.006640
-0.574824 -0.818277 -0.000000
-0.603311 -0.858829 -0.006640
-0.631797 -0.899380 -0.013279
-0.660284 -0.939932 -0.019919
-0.688771 -0.980483 -0.026558
-0.717257 -1.021035 -0.033198
-0.745744 -1.061586 -0.039838
-0.373517 -0.592618 0.017446
-0.400132 -0.634846 0.014538
-0.426747 -0.677073 0.011630
-0.453363 -0.719301 0.008723
-0.479978 -0.761528 0.005815
-0.506593 -0.803756 0.002908
-0.533209 -0.845984 -0.000000
-0.559824 -0.888211 -0.002908
-0.586439 -0.930439 -0.005815
-0.613055 -0.972667 -0.008723
-0.639670 -1.014894 -0.011630
-0.666285 -1.057122 -0.014538
-0.692901 -1.099349 -0.017446
-0.343203 -0.610140 -0.005044
-0.367713 -0.653713 -0.004203
-0.392223 -0.697285 -0.003363
-0.416732 -0.740858 -0.002522
-0.441242 -0.784431 -0.001681
-0.465751 -0.828003 -0.000841
-0.490261 -0.871576 0.000000
-0.514770 -0.915148 0.000841
-0.539280 -0.958721 0.001681
-0.563790 -1.002294 0.002522
-0.588299 -1.045866 0.003363
-0.612809 -1.089439 0.004203
-0.637318 -1.133012 0.005044
-0.312825 -0.627623 -0.027506
-0.335035 -0.672184 -0.022921
-0.357246 -0.716745 -0.018337
-0.379456 -0.761306 -0.013753
-0.401667 -0.805867 -0.009169
-0.423877 -0.850428 -0.004584
-0.446087 -0.894989 0.000000
-0.468298 -0.939550 0.004584
-0.490508 -0.984111 0.009169
-0.512719 -1.028672 0.013753
-0.534929 -1.073233 0.018337
-0.557140 -1.117794 0.022921
-0.579350 -1.162355 0.027506
-0.282229 -0.645131 -0.049813
-0.301990 -0.690304 -0.041511
-0.321752 -0.735476 -0.033208
-0.341514 -0.780649 -0.024906
-0.361276 -0.825821 -0.016604
-0.381037 -0.870994 -0.008302
-0.400799 -0.916166 0.000000
-0.420561 -0.961338 0.008302
-0.440323 -1.006511 0.016604
-0.460085 -1.051683 0.024906
-0.479846 -1.096856 0.033208
-0.499608 -1.142028 0.041511
-0.519370 -1.187200 0.049813
-0.251251 -0.662698 -0.071839
-0.268460 -0.708091 -0.059866
-0.285670 -0.753483 -0.047893
-0.302880 -0.798875 -0.035920
-0.320090 -0.844268 -0.023946
-0.337299 -0.889660 -0.011973
-0.354509 -0.935053 0.000000
-0.371719 -0.980445 0.011973
-0.388929 -1.025837 0.023946
-0.406138 -1.071230 0.035920
-0.423348 -1.116622 0.047893
-0.440558 -1.162014 0.059866
-0.457767 -1.207407 0.071839
-0.219722 -0.680329 -0.093462
-0.234323 -0.725541 -0.077885
-0.248925 -0.770753 -0.062308
-0.263527 -0.815966 -0.046731
-0.278129 -0.861178 -0.031154
-0.292731 -0.906390 -0.015577
-0.307333 -0.951602 0.000000
-0.321935 -0.996814 0.015577
-0.336537 -1.042026 0.031154
-0.351139 -1.087239 0.046731
-0.365740 -1.132451 0.062308
-0.380342 -1.177663 0.077885
-0.394944 -1.222875 0.093462
-0.187469 -0.697998 -0.114560
-0.199456 -0.742627 -0.095467
-0.211442 -0.787256 -0.076373
-0.223429 -0.831885 -0.057280
-0.235415 -0.876515 -0.038187
-0.247402 -0.921144 -0.019093
-0.259389 -0.965773 0.000000
-0.271375 -1.010402 0.019093
-0.283362 -1.055032 0.038187
-0.295348 -1.099661 0.057280
-0.307335 -1.144290 0.076373
-0.319321 -1.188919 0.095467
-0.331308 -1.233548 0.114560
-0.154323 -0.715648 -0.135013
-0.163735 -0.759295 -0.112511
-0.173147 -0.802942 -0.090009
-0.182560 -0.846589 -0.067507
-0.191972 -0.890236 -0.045004
-0.201384 -0.933883 -0.022502
-0.210796 -0.977530 0.000000
-0.220208 -1.021177 0.022502
-0.229620 -1.064824 0.045004
-0.239032 -1.108471 0.067507
-0.248444 -1.152118 0.090009
-0.257856 -1.195765 0.112511
-0.267268 -1.239412 0.135013
-0.120120 -0.733193 -0.154707
-0.127046 -0.775468 -0.128923
-0.133972 -0.817743 -0.103138
-0.140898 -0.860018 -0.077354
-0.147824 -0.902294 -0.051569
-0.154750 -0.944569 -0.025785
-0.161676 -0.986844 0.000000
-0.168602 -1.029119 0.025785
-0.175528 -1.071394 0.051569
-0.182454 -1.113669 0.077354
-0.189380 -1.155944 0.103138
-0.196306 -1.198219 0.128923
-0.203232 -1.240495 0.154707
-0.084707 -0.750517 -0.173532
-0.089281 -0.791046 -0.144610
-0.093855 -0.831575 -0.115688
-0.098430 -0.872104 -0.086766
-0.103004 -0.912633 -0.057844
-0.107578 -0.953162 -0.028922
-0.112153 -0.993691 0.000000
-0.116727 -1.034220 0.028922
-0.121301 -1.074749 0.057844
-0.125875 -1.115278 0.086766
-0.130450 -1.155807 0.115688
-0.135024 -1.196336 0.144610
-0.139598 -1.236865 0.173532
-0.047944 -0.767477 -0.191381
-0.050345 -0.805907 -0.159484
-0.052746 -0.844336 -0.127587
-0.055146 -0.882766 -0.095690
-0.057547 -0.921195 -0.063794
-0.059948 -0.959625 -0.031897
-0.062349 -0.998054 0.000000
-0.064749 -1.036484 0.031897
-0.067150 -1.074914 0.063794
-0.069551 -1.113343 0.095690
-0.071951 -1.151773 0.127587
-0.074352 -1.190202 0.159484
-0.076753 -1.228632 0.191381
-0.009712 -0.783903 -0.208153
-0.010158 -0.819906 -0.173461
-0.010604 -0.855909 -0.138769
-0.011050 -0.891913 -0.104077
-0.011497 -0.927916 -0.069384
-0.011943 -0.963920 -0.034692
-0.012389 -0.999923 0.000000
-0.012835 -1.035927 0.034692
-0.013281 -1.071930 0.069384
-0.013727 -1.107934 0.104077
-0.014173 -1.143937 0.138769
-0.014619 -1.179941 0.173461
-0.015065 -1.215944 0.208153
0.030088 -0.799601 -0.223756
0.031340 -0.832883 -0.186463
0.032593 -0.866165 -0.149171
0.033845 -0.899447 -0.111878
0.035097 -0.932729 -0.074585
0.036350 -0.966011 -0.037293
0.037602 -0.999293 0.000000
0.038855 -1.032575 0.037293
0.040107 -1.065857 0.074585
0.041359 -1.099139 0.111878
0.042612 -1.132421 0.149171
0.043864 -1.165703 0.186463
0.045116 -1.198985 0.223756
0.071530 -0.814359 -0.238100
0.074191 -0.844660 -0.198417
0.076853 -0.874961 -0.158734
0.079514 -0.905262 -0.119050
0.082176 -0.935563 -0.079367
0.084837 -0.965864 -0.039683
0.087499 -0.996165 0.000000
0.090160 -1.026466 0.039683
0.092822 -1.056766 0.079367
0.095484 -1.087067 0.119050
0.098145 -1.117368 0.158734
0.100807 -1.147669 0.198417
0.103468 -1.177970 0.238100
0.114659 -0.827947 -0.251106
0.118412 -0.855047 -0.209255
0.122165 -0.882147 -0.167404
0.125918 -0.909247 -0.125553
0.129671 -0.936347 -0.083702
0.133424 -0.963447 -0.041851
0.137177 -0.990547 0.000000
0.140930 -1.017646 0.041851
0.144683 -1.044746 0.083702
0.148436 -1.071846 0.125553
0.152189 -1.098946 0.167404
0.155942 -1.126046 0.209255
0.159695 -1.153146 0.251106
0.159491 -0.840120 -0.262700
0.163995 -0.863842 -0.218917
0.168498 -0.887564 -0.175133
0.173002 -0.911286 -0.131350
0.177505 -0.935008 -0.087567
0.182009 -0.958731 -0.043783
0.186512 -0.982453 0.000000
0.191016 -1.006175 0.043783
0.195519 -1.029897 0.087567
0.200023 -1.053619 0.131350
0.204526 -1.077341 0.175133
0.209030 -1.101063 0.218917
0.213533 -1.124785 0.262700
0.206010 -0.850626 -0.272817
0.210905 -0.870839 -0.227347
0.215800 -0.891051 -0.181878
0.220696 -0.911264 -0.136408
0.225591 -0.931477 -0.090939
0.230486 -0.951690 -0.045469
0.235381 -0.971903 0.000000
0.240277 -0.992116 0.045469
0.245172 -1.012329 0.090939
0.250067 -1.032542 0.136408
0.254963 -1.052755 0.181878
0.259858 -1.072968 0.227347
0.264753 -1.093181 0.272817
0.254164 -0.859205 -0.281400
0.259080 -0.875825 -0.234500
0.263997 -0.892445 -0.187600
0.268913 -0.909065 -0.140700
0.273829 -0.925685 -0.093800
0.278746 -0.942304 -0.046900
0.283662 -0.958924 0.000000
0.288579 -0.975544 0.046900
0.293495 -0.992164 0.093800
0.298411 -1.008784 0.140700
0.303328 -1.025404 0.187600
0.308244 -1.042024 0.234500
0.313160 -1.058643 0.281400
0.303870 -0.865599 -0.288401
0.308430 -0.878591 -0.240334
0.312991 -0.891582 -0.192267
0.317552 -0.904574 -0.144200
0.322113 -0.917566 -0.096134
0.326673 -0.930557 -0.048067
0.331234 -0.943549 0.000000
0.335795 -0.956540 0.048067
0.340355 -0.969532 0.096134
0.344916 -0.982523 0.144200
0.349477 -0.995515 0.192267
0.354037 -1.008507 0.240334
0.358598 -1.021498 0.288401
0.355008 -0.869552 -0.293780
0.358836 -0.878929 -0.244817
0.362664 -0.888306 -0.195854
0.366493 -0.897683 -0.146890
0.370321 -0.907060 -0.097927
0.374149 -0.916438 -0.048963
0.377978 -0.925815 0.000000
0.381806 -0.935192 0.048963
0.385634 -0.944569 0.097927
0.389463 -0.953946 0.146890
0.393291 -0.963323 0.195854
0.397119 -0.972700 0.244817
0.400948 -0.982077 0.293780
0.407424 -0.870816 -0.297508
0.410150 -0.876641 -0.247923
0.412875 -0.882466 -0.198339
0.415601 -0.888291 -0.148754
0.418326 -0.894116 -0.099169
0.421051 -0.899941 -0.049585
0.423777 -0.905767 0.000000
0.426502 -0.911592 0.049585
0.429228 -0.917417 0.099169
0.431953 -0.923242 0.148754
0.434678 -0.929067 0.198339
0.437404 -0.934893 0.247923
0.440129 -0.940718 0.297508
0.460933 -0.869155 -0.299563
0.462197 -0.871538 -0.249636
0.463461 -0.873921 -0.199709
0.464725 -0.876305 -0.149782
0.465989 -0.878688 -0.099854
0.467253 -0.881071 -0.049927
0.468517 -0.883455 0.000000
0.469781 -0.885838 0.049927
0.471045 -0.888221 0.099854
0.472309 -0.890605 0.149782
0.473572 -0.892988 0.199709
0.474836 -0.895371 0.249636
0.476100 -0.897755 0.299563
0.515314 -0.864350 -0.299934
0.514776 -0.863448 -0.249945
0.514238 -0.862545 -0.199956
0.513700 -0.861642 -0.149967
0.513162 -0.860740 -0.099978
0.512624 -0.859837 -0.049989
0.512085 -0.858934 0.000000
0.511547 -0.858032 0.049989
0.511009 -0.857129 0.099978
0.510471 -0.856227 0.149967
0.509933 -0.855324 0.199956
0.509395 -0.854421 0.249945
0.508857 -0.853519 0.299934
0.570319 -0.856205 -0.298618
0.567661 -0.852215 -0.248848
0.565004 -0.848225 -0.199079
0.562347 -0.844236 -0.149309
0.559689 -0.840246 -0.099539
0.557032 -0.836257 -0.049770
0.554374 -0.832267 0.000000
0.551717 -0.828278 0.049770
0.549059 -0.824288 0.099539
0.546402 -0.820299 0.149309
0.543745 -0.816309 0.199079
0.541087 -0.812320 0.248848
0.538430 -0.808330 0.298618
0.625670 -0.844545 -0.295624
0.620605 -0.837707 -0.246353
0.615539 -0.830870 -0.197082
0.610474 -0.824032 -0.147812
0.605408 -0.817195 -0.098541
0.600343 -0.810358 -0.049271
0.595278 -0.803520 0.000000
0.590212 -0.796683 0.049271
0.585147 -0.789845 0.098541
0.580081 -0.783008 0.147812
0.575016 -0.776171 0.197082
0.569951 -0.769333 0.246353
0.564885 -0.762496 0.295624
0.681066 -0.829225 -0.290967
0.673337 -0.819815 -0.242472
0.665608 -0.810405 -0.193978
0.657879 -0.800995 -0.145483
0.650150 -0.791585 -0.096989
0.642422 -0.782175 -0.048494
0.634693 -0.772764 0.000000
0.626964 -0.763354 0.048494
0.619235 -0.753944 0.096989
0.611507 -0.744534 0.145483
0.603778 -0.735124 0.193978
0.596049 -0.725714 0.242472
0.588320 -0.716304 0.290967
0.736183 -0.810133 -0.284674
0.725573 -0.798457 -0.237229
0.714962 -0.786781 -0.189783
0.704352 -0.775105 -0.142337
0.693742 -0.763429 -0.094891
0.683132 -0.751753 -0.047446
0.672522 -0.740077 0.000000
0.661912 -0.728401 0.047446
0.651302 -0.716725 0.094891
0.640691 -0.705049 0.142337
0.630081 -0.693374 0.189783
0.619471 -0.681698 0.237229
0.608861 -0.670022 0.284674
0.790680 -0.787189 -0.276781
0.777012 -0.773581 -0.230651
0.763343 -0.759972 -0.184521
0.749675 -0.746364 -0.138391
0.736007 -0.732756 -0.092260
0.722338 -0.719148 -0.046130
0.708670 -0.705540 0.000000
0.695001 -0.691932 0.046130
0.681333 -0.678324 0.092260
0.667665 -0.664716 0.138391
0.653996 -0.651108 0.184521
0.640328 -0.637500 0.230651
0.626659 -0.623892 0.276781
0.844203 -0.760349 -0.267332
0.827344 -0.745164 -0.222777
0.810484 -0.729979 -0.178221
0.793625 -0.714794 -0.133666
0.776765 -0.699610 -0.089111
0.759906 -0.684425 -0.044555
0.743046 -0.669240 0.000000
0.726187 -0.654055 0.044555
0.709327 -0.638870 0.089111
0.692468 -0.623685 0.133666
0.675608 -0.608500 0.178221
0.658749 -0.593316 0.222777
0.641889 -0.578131 0.267332
0.896389 -0.729610 -0.256380
0.876252 -0.713219 -0.213650
0.856114 -0.696829 -0.170920
0.835977 -0.680438 -0.128190
0.815840 -0.664048 -0.085460
0.795703 -0.647657 -0.042730
0.775566 -0.631267 0.000000
0.755429 -0.614876 0.042730
0.735292 -0.598486 0.085460
0.715154 -0.582095 0.128190
0.695017 -0.565705 0.170920
0.674880 -0.549314 0.213650
0.654743 -0.532924 0.256380
0.946867 -0.695005 -0.243986
0.923414 -0.677790 -0.203322
0.899960 -0.660575 -0.162657
0.876507 -0.643360 -0.121993
0.853054 -0.626145 -0.081329
0.829600 -0.608930 -0.040664
0.806147 -0.591716 0.000000
0.782693 -0.574501 0.040664
0.759240 -0.557286 0.081329
0.735787 -0.540071 0.121993
0.712333 -0.522856 0.162657
0.688880 -0.505641 0.203322
0.665427 -0.488426 0.243986
0.995270 -0.656610 -0.230220
0.968510 -0.638956 -0.191850
0.941751 -0.621302 -0.153480
0.914991 -0.603648 -0.115110
0.888232 -0.585994 -0.076740
0.861472 -0.568340 -0.038370
0.834713 -0.550686 0.000000
0.807953 -0.533031 0.038370
0.781194 -0.515377 0.076740
0.754434 -0.497723 0.115110
0.727675 -0.480069 0.153480
0.700915 -0.462415 0.191850
0.674156 -0.444761 0.230220
1.041233 -0.614540 -0.215160
1.011226 -0.596830 -0.179300
0.981220 -0.579120 -0.143440
0.951213 -0.561409 -0.107580
0.921206 -0.543699 -0.071720
0.891199 -0.525989 -0.035860
0.861192 -0.508279 0.000000
0.831186 -0.490569 0.035860
0.801179 -0.472859 0.071720
0.771172 -0.455149 0.107580
0.741165 -0.437439 0.143440
0.711158 -0.419728 0.179300
0.681152 -0.402018 0.215160
1.084402 -0.568949 -0.198891
1.051255 -0.551558 -0.165742
1.018108 -0.534167 -0.132594
0.984961 -0.516776 -0.099445
0.951814 -0.499384 -0.066297
0.918667 -0.481993 -0.033148
0.885520 -0.464602 0.000000
0.852372 -0.447211 0.033148
0.819225 -0.429820 0.066297
0.786078 -0.412429 0.099445
0.752931 -0.395038 0.132594
0.719784 -0.377646 0.165742
0.686637 -0.360255 0.198891
1.124436 -0.520031 -0.181503
1.088302 -0.503320 -0.151252
1.052168 -0.486609 -0.121002
1.016034 -0.469898 -0.090751
0.979901 -0.453186 -0.060501
0.943767 -0.436475 -0.030250
0.907633 -0.419764 0.000000
0.871500 -0.403053 0.030250
0.835366 -0.386342 0.060501
0.799232 -0.369630 0.090751
0.763098 -0.352919 0.121002
0.726965 -0.336208 0.151252
0.690831 -0.319497 0.181503
1.161012 -0.468017 -0.163095
1.122090 -0.452327 -0.135912
1.083167 -0.436637 -0.108730
1.044245 -0.420947 -0.081547
1.005323 -0.405257 -0.054365
0.966401 -0.389567 -0.027182
0.927478 -0.373877 0.000000
0.888556 -0.358187 0.027182
0.849634 -0.342497 0.054365
0.810712 -0.326807 0.081547
0.771789 -0.311117 0.108730
0.732867 -0.295427 0.135912
0.693945 -0.279737 0.163095
1.193832 -0.413171 -0.143769
1.152361 -0.398818 -0.119808
1.110890 -0.384465 -0.095846
1.069418 -0.370113 -0.071885
1.027947 -0.355760 -0.047923
0.986476 -0.341407 -0.023962
0.945005 -0.327055 0.000000
0.903534 -0.312702 0.023962
0.862063 -0.298350 0.047923
0.820592 -0.283997 0.071885
0.779121 -0.269644 0.095846
0.737650 -0.255292 0.119808
0.696179 -0.240939 0.143769
1.222622 -0.355791 -0.123636
1.178880 -0.343061 -0.103030
1.135138 -0.330332 -0.082424
1.091396 -0.317603 -0.061818
1.047654 -0.304874 -0.041212
1.003912 -0.292145 -0.020606
0.960170 -0.279415 0.000000
0.916428 -0.266686 0.020606
0.872686 -0.253957 0.041212
0.828944 -0.241228 0.061818
0.785202 -0.228499 0.082424
0.741460 -0.215770 0.103030
0.697718 -0.203040 0.123636
1.247142 -0.296204 -0.102807
1.201441 -0.285349 -0.085672
1.155740 -0.274495 -0.068538
1.110039 -0.263641 -0.051403
1.064338 -0.252786 -0.034269
1.018636 -0.241932 -0.017134
0.972935 -0.231078 0.000000
0.927234 -0.220224 0.017134
0.881533 -0.209369 0.034269
0.835832 -0.198515 0.051403
0.790131 -0.187661 0.068538
0.744430 -0.176806 0.085672
0.698728 -0.165952 0.102807
1.267183 -0.234761 -0.081400
1.219864 -0.225995 -0.067833
1.172545 -0.217228 -0.054267
1.125226 -0.208462 -0.040700
1.077907 -0.199695 -0.027133
1.030588 -0.190929 -0.013567
0.983268 -0.182163 0.000000
0.935949 -0.173396 0.013567
0.888630 -0.164630 0.027133
0.841311 -0.155863 0.040700
0.793992 -0.147097 0.054267
0.746673 -0.138330 0.067833
0.699354 -0.129564 0.081400
1.282573 -0.171837 -0.059536
1.234002 -0.165330 -0.049613
1.185430 -0.158822 -0.039690
1.136859 -0.152315 -0.029768
1.088287 -0.145807 -0.019845
1.039715 -0.139299 -0.009923
0.991144 -0.132792 0.000000
0.942572 -0.126284 0.009923
0.894001 -0.119777 0.019845
0.845429 -0.113269 0.029768
0.796858 -0.106762 0.039690
0.748286 -0.100254 0.049613
0.699715 -0.093747 0.059536
1.293180 -0.107822 -0.037336
1.243741 -0.103700 -0.031114
1.194301 -0.099578 -0.024891
1.144861 -0.095456 -0.018668
1.095422 -0.091334 -0.012445
1.045982 -0.087212 -0.006223
0.996542 -0.083089 0.000000
0.947102 -0.078967 0.006223
0.897663 -0.074845 0.012445
0.848223 -0.070723 0.018668
0.798783 -0.066601 0.024891
0.749344 -0.062479 0.031114
0.699904 -0.058356 0.037336
1.298913 -0.043121 -0.014927
1.249002 -0.041464 -0.012439
1.199092 -0.039807 -0.009951
1.149181 -0.038150 -0.007464
1.099271 -0.036493 -0.004976
1.049360 -0.034836 -0.002488
0.999449 -0.033179 0.000000
0.949539 -0.031522 0.002488
0.899628 -0.029865 0.004976
0.849718 -0.028208 0.007464
0.799807 -0.026552 0.009951
0.749897 -0.024895 0.012439
